-312.8009340000 -1822.8663330000 -224.6748200000
-302.0783690000 -1814.4604490000 -204.3233340000
-318.4801640000 -1834.9654540000 -207.0850220000
-309.8127140000 -1826.1916500000 -205.9381710000
-330.8710020000 -1842.3342290000 -231.5954440000
-303.7261960000 -1819.2701420000 -440.3919070000
-298.6514280000 -1790.0515140000 -442.3049930000
-395.1451110000 -1720.5780030000 -437.4629210000
-396.1517940000 -1707.7995610000 -381.7105710000
-414.0656740000 -1738.4500730000 -433.1043700000
-429.6983950000 -1792.8472900000 -422.3531490000
-425.4719850000 -1764.6577150000 -427.6267090000
-397.8230290000 -1693.4990230000 -335.8619080000
-362.7129210000 -1849.1184080000 -210.2666320000
-362.4063110000 -1840.3706050000 -194.4003300000
-349.0067140000 -1841.5506590000 -187.9776760000
-348.8529660000 -1847.0040280000 -209.1876070000
-333.8832400000 -1839.8229980000 -190.7464600000
-333.6010130000 -1843.4238280000 -208.5966340000
-395.1030580000 -1846.1320800000 -203.8473360000
-384.0124820000 -1840.7114260000 -188.0510560000
-372.8587340000 -1841.4764400000 -193.1618500000
-376.4971010000 -1848.4260250000 -209.3838500000
-426.2109070000 -1818.0603030000 -235.7119600000
-422.1058040000 -1822.6986080000 -265.7239070000
-410.7897950000 -1835.9370120000 -234.4081730000
-407.3479000000 -1840.7927250000 -263.0962830000
-431.5573730000 -1820.0521240000 -209.3031920000
-415.0508120000 -1836.0297850000 -208.8207860000
-402.9723820000 -1849.7303470000 -304.9362180000
-417.4000550000 -1832.0755620000 -305.5885310000
-410.3557740000 -1843.5648190000 -355.6127930000
-396.1711120000 -1860.0357670000 -356.6235960000
-402.7704770000 -1858.5565190000 -416.4430850000
-388.6673280000 -1874.1275630000 -417.4678040000
-416.1666560000 -1840.4291990000 -416.5029910000
-426.2152710000 -1818.7867430000 -418.4379580000
-355.0853580000 -1887.3739010000 -423.7048340000
-372.8415530000 -1885.1848140000 -420.2216800000
-379.8951720000 -1871.1085210000 -356.5798340000
-362.6965940000 -1873.7812500000 -360.2912900000
-351.4504390000 -1871.3764650000 -361.3294370000
-341.9630740000 -1866.6657710000 -362.4528500000
-337.4415890000 -1880.3549800000 -426.6440730000
-346.0820010000 -1883.8093260000 -425.1112370000
-325.7702030000 -1863.8511960000 -432.6180110000
-355.6352230000 -1862.8350830000 -305.7752380000
-343.5288700000 -1858.7924800000 -307.5683590000
-347.2277530000 -1852.6810300000 -263.0325620000
-359.4232180000 -1854.7626950000 -260.0679930000
-371.6463620000 -1855.5255130000 -262.2200320000
-367.5660100000 -1863.7849120000 -304.2728580000
-385.5091250000 -1860.7105710000 -304.0348210000
-389.1510930000 -1851.3864750000 -261.6356200000
-375.6790770000 -1852.5881350000 -233.1947940000
-392.9454350000 -1847.0803220000 -232.8151550000
-348.0275270000 -1850.6379390000 -232.6295320000
-361.8958440000 -1853.0513920000 -231.5983430000
-391.3274230000 -1758.4726560000 -4.2167750000
-408.9971010000 -1758.8050540000 -2.2288610000
-404.2989500000 -1745.7509770000 -2.2422870000
-388.0028990000 -1747.8239750000 -2.2422870000
-423.7010800000 -1740.4000240000 -2.2589180000
-416.9931640000 -1729.5733640000 -2.2631900000
-401.2633360000 -1729.5943600000 -2.2755490000
-429.7846070000 -1752.1931150000 -2.2482390000
-391.4715270000 -1765.6666260000 -8.0329990000
-410.2465820000 -1766.7695310000 -2.3600870000
-431.6399230000 -1759.8848880000 -2.3043920000
-409.9272460000 -1769.2038570000 -5.4895120000
-409.1614070000 -1770.9826660000 -11.3252350000
-430.1037900000 -1764.6069340000 -12.3886180000
-431.3182680000 -1762.4726560000 -5.7753080000
-390.9388730000 -1768.0806880000 -11.3943570000
-390.2159420000 -1769.6943360000 -16.3690260000
-359.3444210000 -1761.9902340000 -4.7204690000
-360.0113220000 -1760.0274660000 -4.3783660000
-347.6407170000 -1751.3309330000 -2.2476280000
-330.5349120000 -1741.4143070000 -2.2534250000
-321.1730650000 -1727.2204590000 -2.2619690000
-311.8209230000 -1736.9262700000 -2.2499150000
-330.7537230000 -1727.2772220000 -2.2589170000
-331.0075070000 -1718.3425290000 -2.2656300000
-348.4981380000 -1701.4979250000 -2.2390770000
-326.6430970000 -1699.9985350000 -2.2692890000
-348.0565190000 -1725.2861330000 -2.3355160000
-347.6360780000 -1672.9367680000 -2.3200980000
-322.2767030000 -1671.7580570000 -2.2724910000
-348.1531980000 -1637.6739500000 -2.2866770000
-321.8843080000 -1637.3200680000 -2.2769110000
-351.7695310000 -1596.3630370000 -2.2248740000
-326.7919010000 -1599.5677490000 -2.2622590000
-320.4105220000 -1565.6367190000 -2.2546250000
-339.4852910000 -1538.0689700000 -2.2520280000
-336.0237120000 -1562.5665280000 -2.2518780000
-344.2223820000 -1542.2247310000 -2.2642350000
-307.3190000000 -1600.8889160000 -2.2590540000
-356.7730710000 -1527.3538820000 -2.2712530000
-359.9994810000 -1537.6750490000 -2.2701860000
-375.3945310000 -1529.7841800000 -2.8224000000
-376.5939030000 -1518.1842040000 -2.3843190000
-358.6476440000 -1555.7573240000 -2.2622530000
-423.0478520000 -1536.6988530000 -2.2631660000
-423.4133000000 -1547.3745120000 -2.2549280000
-441.2909850000 -1560.5487060000 -2.2653060000
-447.4471740000 -1554.5993650000 -2.2643890000
-426.3414610000 -1612.2696530000 -2.2280800000
-452.9054870000 -1625.7017820000 -2.2685180000
-447.3312070000 -1583.5778810000 -2.2639350000
-424.1333310000 -1568.4055180000 -2.2384510000
-464.0729370000 -1591.6090090000 -2.2659200000
-473.9314270000 -1598.2482910000 -2.2477620000
-472.2556460000 -1635.8272710000 -2.2741650000
-477.9804690000 -1685.5819090000 -2.2528080000
-468.7760310000 -1676.5093990000 -2.2702020000
-456.5904850000 -1706.7426760000 -2.2613560000
-449.9690250000 -1665.8643800000 -2.2665390000
-439.0794070000 -1695.9145510000 -2.2586080000
-423.4207760000 -1654.3109130000 -2.4259920000
-414.8799130000 -1686.6658940000 -2.8944400000
-354.9393310000 -1521.7902830000 -2.2437860000
-301.0688170000 -1638.9656980000 -2.2659250000
-301.7304990000 -1674.7625730000 -2.2602840000
-287.6641540000 -1643.4663090000 -2.2477680000
-288.5861510000 -1680.8814700000 -2.2457890000
-308.8144230000 -1704.5881350000 -2.2612030000
-405.8734440000 -1710.5097660000 -2.4809300000
-426.3981630000 -1716.8768310000 -2.2654770000
-441.0555110000 -1727.3544920000 -2.2624260000
-366.8184810000 -1764.3726810000 -35.3076170000
-365.9016420000 -1764.2086180000 -28.3688410000
-359.0901180000 -1770.5852050000 -23.3779960000
-359.5618900000 -1770.6337890000 -29.6569880000
-344.1327820000 -1775.1889650000 -20.8131500000
-344.5987850000 -1775.4671630000 -28.5269240000
-358.6710210000 -1770.3204350000 -18.8464430000
-358.2267460000 -1770.3240970000 -15.0793550000
-344.0490720000 -1774.0527340000 -11.1302280000
-344.0535890000 -1774.4693600000 -15.4809660000
-364.7226560000 -1764.9566650000 -23.5919270000
-364.2453000000 -1765.1088870000 -19.7479310000
-366.3898010000 -1767.6446530000 -51.2341310000
-360.5855710000 -1769.6685790000 -43.5371480000
-361.5601500000 -1769.2170410000 -50.6492690000
-364.7453000000 -1769.6049800000 -60.9243770000
-353.2379150000 -1772.8002930000 -60.3802490000
-358.9124450000 -1772.9743650000 -73.0235290000
-348.4183040000 -1773.8070070000 -48.3636550000
-379.4133910000 -1772.0550540000 -78.2263110000
-382.8279110000 -1769.2312010000 -66.4309690000
-370.6927800000 -1769.3914790000 -68.6718750000
-385.7574460000 -1768.1571040000 -52.8208920000
-372.0928040000 -1766.3222660000 -56.7129520000
-397.0983580000 -1770.8648680000 -70.4772950000
-400.6679990000 -1770.0567630000 -54.9945070000
-412.5839230000 -1768.7635500000 -76.5242000000
-416.6581420000 -1767.4893800000 -60.4156490000
-393.5431820000 -1773.8685300000 -86.2873760000
-409.4007570000 -1771.9672850000 -93.6100690000
-451.6860050000 -1746.0783690000 -2.6664810000
-449.3090520000 -1738.1285400000 -2.2506780000
-468.4719240000 -1725.1348880000 -4.0919550000
-465.7621770000 -1716.5728760000 -2.2540330000
-451.2480160000 -1749.3802490000 -7.2438130000
-449.5042720000 -1752.2104490000 -15.1289430000
-466.1139220000 -1733.5767820000 -18.9720190000
-468.0289920000 -1729.4797360000 -9.8425340000
-454.1554570000 -1735.6713870000 -106.0577320000
-449.2883300000 -1738.7303470000 -121.6520540000
-442.9104310000 -1752.8868410000 -94.4024580000
-438.6057430000 -1755.9261470000 -110.5897370000
-459.5954280000 -1731.3970950000 -90.4368520000
-448.0548100000 -1749.7042240000 -78.6763000000
-428.5067140000 -1762.6676030000 -83.9543150000
-425.1907650000 -1766.3881840000 -100.4624860000
-432.9772340000 -1760.5209960000 -68.0703740000
-480.9398190000 -1695.1402590000 -6.4309700000
-480.4948430000 -1700.7342530000 -13.4170540000
-478.5657960000 -1706.3990480000 -23.7902830000
-330.2327880000 -1773.4782710000 -58.6070250000
-334.4023440000 -1773.6490480000 -73.6794970000
-338.5704040000 -1774.7630620000 -88.5112000000
-324.5835570000 -1771.1497800000 -25.2703930000
-325.4413450000 -1772.4777830000 -34.5526200000
-306.6124570000 -1758.1312260000 -32.7143900000
-307.8995060000 -1760.5869140000 -43.5488890000
-324.3728640000 -1769.7712400000 -18.8540730000
-324.2303470000 -1768.8410640000 -13.6787490000
-305.5752560000 -1754.4097900000 -18.9553890000
-306.0524900000 -1755.9991460000 -25.0996440000
-317.1506650000 -1842.3417970000 -439.0151980000
-310.5531920000 -1566.3452150000 -2.2498950000
-305.6769710000 -1573.9700930000 -6.3011040000
-304.5368040000 -1580.7020260000 -17.8378140000
-330.3819270000 -1540.3005370000 -7.4600040000
-328.6528930000 -1546.1770020000 -19.1648670000
-334.5005490000 -1536.9516600000 -2.2534010000
-351.3331910000 -1522.1870120000 -8.5976980000
-374.4498600000 -1513.2222900000 -2.3203840000
-371.0685120000 -1515.7388920000 -9.5905860000
-347.9300840000 -1528.3914790000 -20.0474340000
-460.6274410000 -1594.6290280000 -67.8751980000
-430.9526980000 -1557.2629390000 -70.2479320000
-459.4472050000 -1605.4447020000 -84.9597020000
-430.3904420000 -1570.4992680000 -88.1911930000
-484.1896670000 -1675.5803220000 -41.7451400000
-481.2251590000 -1681.3402100000 -56.5751570000
-479.0210880000 -1638.1635740000 -63.8558810000
-476.3853150000 -1646.9244380000 -80.2853160000
-477.5190430000 -1688.2788090000 -71.6874620000
-290.4702150000 -1648.4156490000 -77.0356600000
-284.2711180000 -1681.7727050000 -72.0219350000
-282.9188230000 -1675.5273440000 -56.5457080000
-289.3339540000 -1640.6337890000 -60.4260100000
-288.8792720000 -1634.8753660000 -48.1922760000
-282.1995540000 -1670.8730470000 -45.2326890000
-281.5419310000 -1667.1694340000 -35.9390180000
-288.4682310000 -1630.2551270000 -38.0886690000
-283.2503050000 -1705.0052490000 -40.0028990000
-282.5960080000 -1702.0175780000 -31.7401080000
-285.2441410000 -1713.7148440000 -64.1426010000
-283.9570010000 -1708.7708740000 -50.1348800000
-293.8438720000 -1740.7695310000 -53.6517330000
-292.4216920000 -1737.1062010000 -41.3423160000
-291.7033690000 -1734.1563720000 -32.5576780000
-291.0696720000 -1731.8432620000 -25.4385400000
-388.4104000000 -1768.8972170000 -34.8983840000
-405.7002560000 -1770.3762210000 -33.6290050000
-407.2015080000 -1770.9987790000 -25.3524860000
-389.0486760000 -1769.6350100000 -28.0896050000
-408.2727660000 -1771.3385010000 -17.6016310000
-389.5772090000 -1770.1015630000 -21.6925130000
-426.2420960000 -1765.7624510000 -28.2075560000
-428.4635620000 -1765.3649900000 -19.4233780000
-423.5875850000 -1765.9685060000 -37.4647600000
-372.9283140000 -1762.2741700000 -40.3663640000
-356.7090150000 -1767.0975340000 -7.9861550000
-357.8290410000 -1764.7312010000 -4.5703220000
-344.4723510000 -1767.1761470000 -2.2415270000
-344.3025820000 -1769.9587400000 -4.7479350000
-347.4228820000 -1759.0208740000 -2.2406100000
-444.0393070000 -1755.2905270000 -33.2792660000
-447.1066280000 -1753.7307130000 -23.4234660000
-460.1363530000 -1739.8107910000 -39.8417660000
-463.4469910000 -1736.4896240000 -28.5574360000
-440.6874080000 -1756.7244870000 -43.6082460000
-456.5362850000 -1742.9774170000 -51.6316220000
-472.5902100000 -1716.1145020000 -47.6808170000
-475.8815310000 -1710.9499510000 -34.6887210000
-468.8716130000 -1721.1275630000 -61.1144940000
-330.0159300000 -1753.2238770000 -2.2508330000
-325.9338680000 -1761.3215330000 -2.2602940000
-325.1892090000 -1764.2224120000 -5.5922030000
-324.6863100000 -1583.7832030000 -87.5602420000
-303.3185420000 -1615.2778320000 -82.2025910000
-302.9730530000 -1605.8978270000 -64.5811230000
-324.7824710000 -1572.9288330000 -69.5889050000
-325.5627440000 -1564.5393070000 -54.6401750000
-303.0462340000 -1598.9270020000 -51.5543900000
-303.0220640000 -1593.2236330000 -40.1814120000
-326.1740720000 -1558.5151370000 -42.7943190000
-345.3698430000 -1540.9952390000 -44.2141490000
-345.0041500000 -1547.5974120000 -56.1381300000
-346.5828250000 -1567.8099370000 -89.0873410000
-344.9686280000 -1556.0047610000 -70.9330520000
-405.8480530000 -1520.5002440000 -13.2468970000
-406.1795960000 -1541.9139400000 -54.8034360000
-407.3224790000 -1533.1320800000 -40.2369460000
-385.9284360000 -1733.5838620000 -2.2755500000
-380.9675290000 -1762.3156740000 -22.5627190000
-381.7931520000 -1762.5711670000 -18.3485490000
-366.5592350000 -1744.2596440000 -10.9651240000
-362.5807800000 -1744.4360350000 -3.4780960000
-361.0107730000 -1757.0866700000 -3.8656710000
-365.4620970000 -1753.6257320000 -10.2587970000
-366.7450870000 -1708.9722900000 -2.5601230000
-368.1391300000 -1680.3601070000 -2.8944400000
-369.9031070000 -1596.3032230000 -2.2248740000
-368.9324650000 -1642.4700930000 -2.2866780000
-373.1671450000 -1551.3280030000 -3.6361540000
-402.2595520000 -1602.8607180000 -2.2665310000
-402.2144780000 -1557.5279540000 -4.3076940000
-401.8950810000 -1533.5780030000 -3.1858650000
-401.7403560000 -1521.9775390000 -2.6424980000
-398.9583740000 -1648.9716800000 -2.4259910000
-392.5837400000 -1685.2667240000 -2.8944400000
-404.1893920000 -1517.0760500000 -2.4831960000
-387.9723820000 -1712.1068120000 -2.4809300000
-383.1576840000 -1754.6735840000 -11.4944530000
-383.2615050000 -1746.6168210000 -10.2603220000
-369.4036870000 -1521.7553710000 -22.1493300000
-404.6721500000 -1553.5670170000 -72.0841750000
-399.1691280000 -1566.3306880000 -89.5133670000
-361.3615110000 -1764.0986330000 -10.8529750000
-377.7981870000 -1566.4085690000 -90.8592000000
-373.0145570000 -1564.3941650000 -90.1202090000
-367.8366700000 -1550.3656010000 -72.0121460000
-372.2224430000 -1552.8967290000 -72.4929580000
-371.5397030000 -1544.1243900000 -58.8656310000
-367.0900880000 -1541.6296390000 -58.1574710000
-366.8737180000 -1534.6857910000 -46.6140520000
-370.8086850000 -1537.1605220000 -47.4688420000
-402.7254330000 -1526.8178710000 -25.2874550000
-399.9898990000 -1530.0371090000 -25.4121170000
-400.1244510000 -1523.5776370000 -12.3177900000
-402.4482730000 -1521.3223880000 -12.8553570000
-373.5379940000 -1533.8634030000 -36.0935750000
-375.0299680000 -1550.9869380000 -37.4236830000
-376.0759890000 -1558.7414550000 -51.1129530000
-373.4160160000 -1540.8902590000 -48.3572160000
-396.6251220000 -1650.1437990000 -12.1993960000
-399.6712650000 -1603.5108640000 -11.4683430000
-393.3795170000 -1604.1807860000 -38.7245030000
-389.2628780000 -1652.1480710000 -42.2148060000
-383.6714780000 -1688.7829590000 -37.3675460000
-390.8580020000 -1685.9475100000 -9.5693970000
-373.9494020000 -1686.1643070000 -33.0339010000
-374.9285280000 -1648.5134280000 -37.8158490000
-372.6798100000 -1646.4715580000 -24.8515220000
-371.8845520000 -1684.1015630000 -22.3229960000
-386.0703740000 -1713.4884030000 -8.1922940000
-378.2922360000 -1719.1380620000 -31.5486150000
-373.3600770000 -1717.1505130000 -27.2462460000
-371.4151310000 -1714.7454830000 -19.9882510000
-374.9092100000 -1736.2905270000 -31.9853230000
-376.6028750000 -1735.9500730000 -27.7261370000
-376.1980590000 -1720.6589360000 -37.8370670000
-374.9734500000 -1719.1448970000 -33.2672120000
-374.0623470000 -1736.3092040000 -29.1412370000
-372.9832460000 -1759.8233640000 -32.8349340000
-373.6723330000 -1757.6474610000 -29.0661660000
-372.3336180000 -1757.8883060000 -25.7879700000
-367.2865300000 -1755.9046630000 -16.8156510000
-364.7677310000 -1757.8432620000 -10.3122020000
-368.7832950000 -1750.8731690000 -17.4685730000
-369.7829590000 -1743.7207030000 -18.2701150000
-378.1669620000 -1760.7263180000 -27.3805290000
-375.6650090000 -1758.2897950000 -25.4144340000
-382.7545780000 -1760.1101070000 -15.5398640000
-375.5235290000 -1748.7969970000 -25.0627190000
-375.5150450000 -1754.6745610000 -25.0430340000
-385.2485960000 -1574.7984620000 -95.5074770000
-382.0180360000 -1569.2211910000 -89.0307310000
-388.3724980000 -1569.9074710000 -88.8125380000
-389.7555540000 -1586.1042480000 -62.9821550000
-388.0516970000 -1613.9493410000 -60.9030000000
-393.8426820000 -1578.0137940000 -44.9503860000
-401.2619930000 -1544.4293210000 -55.8608700000
-398.9691770000 -1555.4532470000 -72.5114210000
-394.7866210000 -1559.5609130000 -73.1608350000
-397.8553160000 -1548.9401860000 -57.5974810000
-372.8493650000 -1523.8946530000 -22.8823640000
-374.3014830000 -1517.3645020000 -9.7096040000
-376.2595520000 -1520.3698730000 -9.8101600000
-374.9198910000 -1527.3261720000 -23.6280610000
-396.7754520000 -1565.8182370000 -29.7485180000
-399.2608340000 -1558.4505620000 -12.0814350000
-244.6153720000 -1010.7449950000 -1075.2904050000
-244.4326020000 -930.2433470000 -1022.0103760000
-132.0779570000 -927.6790770000 -986.6148680000
-130.9748840000 -1025.0821530000 -1032.6785890000
-134.3873290000 -232.8258060000 -926.1115110000
-126.5677950000 -167.5952000000 -941.1656490000
-34.8153460000 -168.0551910000 -925.7812500000
-320.4037780000 -157.7684330000 -1009.3521120000
-220.4578400000 -164.9378660000 -972.1595460000
-232.1459810000 -230.0361180000 -956.2412110000
-336.5358580000 -222.9772340000 -992.8429570000
-434.1760560000 -216.3586580000 -1043.9312740000
-415.9740300000 -150.1572270000 -1061.5468750000
-221.6927800000 276.3402710000 -1135.3917240000
-233.8981780000 212.2604370000 -1119.5175780000
-308.0560910000 211.3225860000 -1175.1585690000
-298.9813230000 271.7859190000 -1189.7387700000
-149.1242520000 -517.1563110000 -906.3659670000
-148.6109770000 -442.7417300000 -905.6930540000
-43.2777100000 -443.2539670000 -888.8171390000
-42.0172960000 -517.1030270000 -892.0565190000
-9.9491830000 -1067.3269040000 -1013.6473390000
-67.8711700000 -1100.9467770000 -1001.7425540000
-78.3072590000 -1075.3295900000 -1029.5045170000
-118.9045720000 -1117.6748050000 -1021.1231080000
-123.2404170000 -1100.1729740000 -1048.5543210000
-200.0305480000 -1238.4486080000 -998.6682130000
-214.1909480000 -1215.3234860000 -1043.3194580000
-170.4484250000 -1171.1444090000 -1016.8999630000
-161.6094670000 -1197.5155030000 -979.4620360000
-222.3442990000 -1191.7126460000 -1093.1467290000
-172.2288970000 -1144.9477540000 -1056.6440430000
-118.5410230000 -1140.5718990000 -991.2446900000
-113.7845460000 -1165.8167720000 -959.4005130000
-316.2950440000 -1291.3663330000 -1244.7697750000
-283.8157650000 -1215.0007320000 -1242.0611570000
-268.2609560000 -1229.1807860000 -1178.8814700000
-302.5325320000 -1288.9542240000 -1190.7010500000
-261.2183230000 -1136.3189700000 -1212.0943600000
-226.3794400000 -1166.8763430000 -1154.2669680000
-260.4602050000 -1246.0545650000 -1118.2860110000
-289.3291930000 -1303.2540280000 -1133.0354000000
-248.7203520000 -1264.4523930000 -1061.8974610000
-274.3737490000 -1316.1437990000 -1073.9508060000
-171.9278260000 -1101.9553220000 -1100.0620120000
-254.7278290000 -1073.8879390000 -1144.9381100000
-64.5774080000 -1122.3057860000 -975.3660890000
-63.0317460000 -1145.7186280000 -946.2628780000
-418.1419070000 -1004.5048830000 -1151.6186520000
-425.3628540000 -930.7664180000 -1108.9536130000
-339.6673890000 -929.4210210000 -1065.0312500000
-335.9536130000 -1003.5935060000 -1114.9782710000
-518.7037350000 -1045.4390870000 -1320.2537840000
-468.8753050000 -1054.3835450000 -1255.7711180000
-457.2500310000 -1103.0034180000 -1296.7314450000
-497.9033810000 -1089.2944340000 -1359.1539310000
-489.9663390000 -1136.8974610000 -1387.9458010000
-452.2886050000 -1149.3464360000 -1325.8990480000
-459.3415530000 -1192.9747310000 -1333.7282710000
-516.2334590000 -1185.4243160000 -1392.4962160000
-466.6196290000 -1218.2768550000 -1317.8953860000
-500.2244260000 -1222.5109860000 -1337.3005370000
-466.0373540000 -1262.7495120000 -1280.5062260000
-440.6467900000 -1234.9843750000 -1277.4769290000
-559.9155880000 -1311.3839110000 -1356.1402590000
-584.9510500000 -1282.0416260000 -1417.3128660000
-550.6904300000 -1238.2443850000 -1371.0924070000
-521.3654790000 -1271.9144290000 -1315.9461670000
-611.9204710000 -1261.5825200000 -1482.2138670000
-578.6544800000 -1212.2650150000 -1434.1250000000
-529.7239380000 -1118.4226070000 -1460.3521730000
-564.2057500000 -1157.4581300000 -1478.4216310000
-587.3900760000 -1140.5817870000 -1560.0894780000
-559.6284790000 -1100.4978030000 -1532.0900880000
-543.0798950000 -1079.4555660000 -1427.2142330000
-571.6748050000 -1066.5698240000 -1499.3059080000
-544.8344120000 -992.9506230000 -1279.7286380000
-594.2067870000 -986.4186400000 -1364.1162110000
-623.1432500000 -922.1091310000 -1333.8665770000
-568.8988040000 -927.5798340000 -1240.5882570000
-483.3377690000 -995.8787840000 -1211.5604250000
-499.4914860000 -928.4028930000 -1169.5880130000
-565.3321530000 -1038.2141110000 -1396.5758060000
-593.5342410000 -1027.7043460000 -1481.3862300000
-673.0481570000 -905.7629390000 -1554.2333980000
-656.7524410000 -913.4046630000 -1440.6439210000
-623.8553470000 -976.4561770000 -1462.0823970000
-637.9643550000 -970.4583740000 -1565.0578610000
-605.9633180000 -1043.3947750000 -1673.5777590000
-606.6253050000 -1024.9451900000 -1569.2612300000
-586.7192990000 -1057.0384520000 -1556.5782470000
-580.3242800000 -1079.9610600000 -1601.5408940000
-528.1154790000 -1193.7526860000 -2213.5922850000
-527.1946410000 -1154.2773440000 -2214.3464360000
-535.8368530000 -1139.8205570000 -2163.5441890000
-542.0065920000 -1185.9182130000 -2159.2011720000
-730.5197750000 -745.5027470000 -1656.9274900000
-710.1275020000 -826.2992550000 -1664.9239500000
-696.4654540000 -820.5531010000 -1785.6750490000
-708.7376710000 -739.7124020000 -1780.4776610000
-626.8558960000 -1163.5886230000 -1846.1478270000
-639.2420040000 -1230.4410400000 -1870.6934810000
-618.3064580000 -1230.6102290000 -1953.0583500000
-608.4567870000 -1165.6381840000 -1934.0238040000
-683.3880620000 -684.4858400000 -1274.4554440000
-690.6108400000 -600.4616090000 -1265.0540770000
-629.2211300000 -603.2526860000 -1167.9459230000
-622.0685420000 -687.8510740000 -1175.6668700000
-516.5244750000 -852.6063230000 -1136.7430420000
-589.9958500000 -852.3838500000 -1211.4381100000
-608.5825200000 -771.6286010000 -1190.2930910000
-532.2661130000 -771.9134520000 -1112.8341060000
-603.7792360000 -283.3161930000 -1173.0087890000
-618.3503420000 -358.8924260000 -1165.6771240000
-678.2742920000 -358.6565860000 -1259.4925540000
-664.2802120000 -283.2790220000 -1263.2473140000
-458.1617130000 -362.2789310000 -1021.3497310000
-544.6523440000 -360.2260740000 -1086.9914550000
-532.7413330000 -284.3783870000 -1094.6608890000
-448.0820010000 -287.1385190000 -1029.4735110000
-646.4160160000 -1239.7460940000 -1629.8026120000
-625.6467290000 -1180.9178470000 -1591.9193120000
-608.0729980000 -1193.0123290000 -1511.5616460000
-635.9717410000 -1246.0258790000 -1554.4794920000
-626.9151610000 -1322.7829590000 -1528.4879150000
-643.0725100000 -1312.0290530000 -1597.3017580000
-626.8387450000 -1389.6712650000 -1571.0490720000
-637.7547000000 -1380.6419680000 -1636.5473630000
-534.1037600000 -1433.7175290000 -1980.7102050000
-562.9920650000 -1363.1848140000 -1973.2834470000
-592.1015010000 -1363.8386230000 -1901.3737790000
-563.2357790000 -1433.7427980000 -1913.9176030000
-538.7803340000 -1505.9222410000 -1927.0522460000
-510.9214170000 -1507.5587160000 -1990.5881350000
-571.5509640000 -1553.7471920000 -1524.3217770000
-585.7881470000 -1534.7015380000 -1582.5280760000
-599.4909060000 -1469.7673340000 -1548.3135990000
-580.6761470000 -1490.7987060000 -1487.6688230000
-596.0466920000 -1524.6337890000 -1639.0578610000
-615.3515630000 -1458.7945560000 -1607.5891110000
-604.7128910000 -1402.1068120000 -1508.3697510000
-584.1824340000 -1424.1479490000 -1446.0660400000
-600.2358400000 -1339.8544920000 -1464.1923830000
-577.9506230000 -1364.2984620000 -1401.5184330000
-523.3688960000 -1578.8143310000 -1940.7866210000
-516.2518920000 -1651.4602050000 -1953.6308590000
-499.7763980000 -1654.2727050000 -2016.1312260000
-501.6380310000 -1581.5538330000 -2003.3953860000
-446.9340210000 -1594.2281490000 -2136.6303710000
-454.0868530000 -1522.7760010000 -2130.1035160000
-482.3960880000 -1512.8636470000 -2059.0659180000
-477.4067080000 -1586.5346680000 -2069.8449710000
-440.7571110000 -1660.7878420000 -2144.0444340000
-476.1784060000 -1657.3071290000 -2081.6733400000
-474.3799130000 -1447.3756100000 -2131.6398930000
-504.1793520000 -1437.6544190000 -2054.0405270000
-620.9978640000 -1297.9824220000 -1888.1455080000
-594.9874880000 -1297.4392090000 -1964.3125000000
-453.4475400000 -1304.8220210000 -1237.4329830000
-499.0571900000 -1306.1844480000 -1267.9145510000
-445.9284670000 -1346.7329100000 -1195.3586430000
-489.7574770000 -1343.4393310000 -1216.0911870000
-524.5864870000 -1382.9821780000 -1246.7036130000
-537.8934330000 -1342.7229000000 -1301.1202390000
-550.7086180000 -1436.9107670000 -1283.2115480000
-559.1652220000 -1395.9899900000 -1341.8886720000
-576.2000730000 -1497.8264160000 -1321.7503660000
-573.3978880000 -1460.3618160000 -1383.8780520000
-500.5766910000 -1464.5209960000 -1135.3576660000
-527.2925420000 -1518.9881590000 -1167.6813960000
-541.2479860000 -1477.0744630000 -1224.3114010000
-512.7133180000 -1424.0705570000 -1191.2973630000
-553.3618770000 -1580.9417720000 -1203.4664310000
-569.8985600000 -1537.9250490000 -1259.8375240000
-572.4521480000 -1694.4687500000 -1299.2680660000
-584.3350830000 -1659.3710940000 -1351.9384770000
-586.3759160000 -1604.2464600000 -1303.0557860000
-571.8968510000 -1644.1203610000 -1247.8533940000
-583.7979130000 -1621.6866460000 -1408.1658940000
-588.7224120000 -1562.3406980000 -1364.6634520000
-534.0343020000 -1629.0544430000 -1157.2844240000
-551.9565430000 -1680.1920170000 -1204.2739260000
-520.2036130000 -1686.6754150000 -1113.7882080000
-531.9409790000 -1715.5681150000 -1172.0882570000
-533.5410160000 -1750.6218260000 -1215.7526860000
-554.4536130000 -1724.8223880000 -1254.0137940000
-518.6069950000 -1742.9113770000 -1158.2414550000
-512.3349610000 -1769.9201660000 -1183.4061280000
-512.2181400000 -1747.4832760000 -1123.1083980000
-497.8755490000 -1786.7211910000 -1145.1536870000
-497.6222230000 -1752.6755370000 -997.9298710000
-488.0816040000 -1801.1009520000 -1019.0201420000
-501.4305420000 -1786.2028810000 -1047.5085450000
-506.5767520000 -1735.0694580000 -1025.0606690000
-462.8264770000 -1838.9918210000 -1037.4754640000
-478.8116760000 -1825.8863530000 -1070.7769780000
-508.7793270000 -1768.8074950000 -1078.6984860000
-489.3140560000 -1810.1940920000 -1102.0419920000
-511.8857120000 -1717.1812740000 -1054.2211910000
-481.0663150000 -1648.1433110000 -941.4431760000
-492.1336980000 -1698.1517330000 -973.2230830000
-498.1542660000 -1679.7813720000 -996.5323490000
-485.1329960000 -1628.2248540000 -963.3958130000
-504.1748350000 -1661.4111330000 -1019.8417360000
-510.1080630000 -1619.1698000000 -1067.7099610000
-489.1996150000 -1608.3062740000 -985.3484500000
-492.8375240000 -1563.7025150000 -1030.9906010000
-515.6309200000 -1567.9674070000 -1115.4182130000
-494.0119020000 -1514.1802980000 -1081.5766600000
-566.5449220000 -1669.6176760000 -1446.5729980000
-565.5697630000 -1702.7854000000 -1395.6821290000
-556.6578370000 -1735.1165770000 -1347.3260500000
-538.2220460000 -1766.2603760000 -1387.8712160000
-546.8705440000 -1736.6784670000 -1432.5594480000
-550.8306880000 -1708.2857670000 -1478.9027100000
-540.1845700000 -1743.1375730000 -1504.4414060000
-532.9156490000 -1766.6682130000 -1463.7781980000
-523.0692750000 -1794.1589360000 -1422.7745360000
-523.0618290000 -1793.4168700000 -1490.1236570000
-510.6727600000 -1822.1784670000 -1453.4714360000
-492.1211240000 -1853.9238280000 -1484.3591310000
-515.2654420000 -1810.9223630000 -1514.9180910000
-529.4459230000 -1779.2911380000 -1519.4340820000
-468.7054440000 -1885.8909910000 -1398.4018550000
-482.6362000000 -1872.1179200000 -1431.2744140000
-500.0312500000 -1846.9450680000 -1410.0172120000
-484.1305850000 -1867.9494630000 -1369.5316160000
-512.9776610000 -1821.8231200000 -1380.6365970000
-527.2925420000 -1794.4255370000 -1343.5882570000
-498.0739140000 -1845.6309810000 -1337.3243410000
-511.5125430000 -1819.6846920000 -1300.1250000000
-543.1233520000 -1763.7193600000 -1301.5914310000
-525.1522220000 -1787.4860840000 -1258.4671630000
-579.0308840000 -1525.0455320000 -1425.2296140000
-572.9625850000 -1585.5513920000 -1464.7564700000
-560.9184570000 -1637.9492190000 -1500.0762940000
-559.8818360000 -1611.1707760000 -1555.4758300000
-550.2974240000 -1682.8177490000 -1528.7698970000
-548.3666990000 -1663.4904790000 -1580.3673100000
-440.8117070000 -1390.2412110000 -1149.1567380000
-480.5793460000 -1385.2813720000 -1163.4348140000
-435.9353940000 -1435.8251950000 -1100.4387210000
-472.9109800000 -1432.1945800000 -1109.6215820000
-405.5524900000 -1421.3750000000 -1140.9174800000
-403.6651000000 -1463.6306150000 -1096.7681880000
-405.8573610000 -1381.7827150000 -1185.3736570000
-370.9509280000 -1429.9265140000 -1160.2053220000
-372.4197080000 -1467.2467040000 -1123.9642330000
-372.2476500000 -1504.7441410000 -1089.0123290000
-337.1961670000 -1483.0472410000 -1127.4862060000
-302.4280400000 -1540.6173100000 -1105.6030270000
-304.8170170000 -1569.3935550000 -1087.4449460000
-339.2466130000 -1517.5371090000 -1102.7127690000
-305.0585940000 -1599.3775630000 -1068.2929690000
-339.1855470000 -1551.1099850000 -1076.6905520000
-253.5350490000 -1632.2814940000 -1088.1549070000
-240.3083650000 -1685.7542720000 -1083.2969970000
-256.8059690000 -1652.0925290000 -1079.9608150000
-242.1696470000 -1707.3385010000 -1077.0987550000
-259.8524170000 -1673.9271240000 -1069.7857670000
-272.6727910000 -1621.3623050000 -1080.1025390000
-276.4568790000 -1644.0417480000 -1067.1218260000
-268.6309200000 -1597.8232420000 -1092.5340580000
-296.4948430000 -1486.4010010000 -1130.2989500000
-300.2611690000 -1512.8704830000 -1119.8709720000
-335.3599550000 -1447.9155270000 -1149.6151120000
-331.7046200000 -1414.0744630000 -1167.9613040000
-367.0002140000 -1391.3950200000 -1196.3642580000
-360.1812130000 -1356.8919680000 -1228.1851810000
-263.4696350000 -1585.7506100000 -1099.0815430000
-258.4483950000 -1580.9884030000 -1098.6934810000
-223.0575260000 -1752.3265380000 -1098.3001710000
-221.6704860000 -1745.8355710000 -1109.6790770000
-237.8228300000 -1671.2045900000 -1088.6424560000
-220.0014500000 -1742.0472410000 -1113.1135250000
-261.4677730000 -1697.1357420000 -1058.2420650000
-250.9860690000 -1745.2401120000 -1057.2856450000
-263.6295170000 -1717.6400150000 -1045.2104490000
-277.3571470000 -1670.6082760000 -1052.7921140000
-277.2286380000 -1695.3652340000 -1037.6705320000
-300.1111760000 -1669.8652340000 -1025.1015630000
-303.8571780000 -1631.4531250000 -1048.9034420000
-231.2913060000 -1767.9757080000 -1091.8686520000
-213.9824980000 -1799.6749270000 -1133.1209720000
-222.8086850000 -1812.9270020000 -1129.6628420000
-234.6251680000 -1830.3126220000 -1123.8629150000
-211.9467930000 -1854.4814450000 -1188.3581540000
-222.1701200000 -1874.8336180000 -1193.9873050000
-239.8271790000 -1780.6514890000 -1082.0853270000
-245.9694370000 -1727.6553960000 -1069.0253910000
-365.5304260000 -1582.7711180000 -1015.9506230000
-370.0220640000 -1545.1408690000 -1053.7280270000
-336.2785340000 -1586.8972170000 -1050.2856450000
-332.4580990000 -1620.2471920000 -1021.5149540000
-397.3110660000 -1551.6864010000 -1009.3668820000
-401.3659360000 -1509.5198970000 -1053.7318120000
-428.2795720000 -1531.2019040000 -1001.4125980000
-431.7310490000 -1485.5382080000 -1051.1378170000
-353.5785220000 -1643.0074460000 -933.5462040000
-383.5892640000 -1622.5428470000 -922.0413820000
-387.2951660000 -1605.9117430000 -943.7924800000
-356.5128480000 -1628.7095950000 -954.9124760000
-416.3354190000 -1610.0539550000 -914.2498170000
-419.8205260000 -1591.1628420000 -935.3484500000
-391.0011290000 -1589.2807620000 -965.5437620000
-423.3056340000 -1572.2718510000 -956.4470830000
-359.4472960000 -1614.4123540000 -976.2786250000
-306.9928590000 -1681.6623540000 -997.0391240000
-329.0660100000 -1645.2789310000 -989.0339360000
-306.9551700000 -1693.6237790000 -978.8853760000
-304.3255310000 -1705.3798830000 -959.8026730000
-325.1961670000 -1670.9759520000 -947.3716430000
-327.5551150000 -1658.6236570000 -967.9247440000
-406.8885500000 -1342.8648680000 -1226.3833010000
-406.8623960000 -1306.8836670000 -1257.4678960000
-394.7596740000 -1281.2542720000 -1283.2612300000
-425.0653990000 -1205.9213870000 -1278.5079350000
-370.4731750000 -1246.9284670000 -1305.2609860000
-346.7348940000 -1332.6235350000 -1246.8353270000
-348.9571230000 -1171.7175290000 -1296.8221440000
-339.8930970000 -1117.7596440000 -1237.4819340000
-335.9379270000 -1066.2335210000 -1175.2137450000
-327.2645870000 -1387.2172850000 -1181.0750730000
-317.6331180000 -1362.2656250000 -1186.0703130000
-296.9288330000 -1447.4833980000 -1127.5966800000
-295.8738400000 -1464.5004880000 -1135.8609620000
-254.8089450000 -1575.6986080000 -1096.2467040000
-252.0592800000 -1569.0842290000 -1076.2420650000
-280.7161870000 -1508.4079590000 -1034.6922610000
-257.9713130000 -1588.6025390000 -1048.2841800000
-288.3706970000 -1482.7548830000 -1069.9693600000
-245.2020110000 -1620.8621830000 -1064.0938720000
-229.8080440000 -1670.7567140000 -1084.0634770000
-243.2397310000 -1619.6867680000 -1090.6088870000
-210.0912780000 -1536.0941160000 -907.3682860000
-237.8240050000 -1525.9549560000 -940.5284420000
-232.1942750000 -1493.3895260000 -936.8285520000
-203.1680760000 -1505.9405520000 -905.4048460000
-244.1646120000 -1650.3229980000 -1034.0975340000
-305.8397830000 -1379.4094240000 -1137.3151860000
-294.2378850000 -1419.1196290000 -1078.7318120000
-288.4319760000 -1359.1187740000 -1079.0860600000
-300.2877200000 -1345.4285890000 -1139.0231930000
-181.2146760000 -1802.4777830000 -1056.9794920000
-211.9779510000 -1776.4870610000 -1080.1416020000
-168.1194760000 -1846.8016360000 -1107.0996090000
-196.6354680000 -1822.1505130000 -1121.9686280000
-234.0343930000 -1694.4566650000 -1065.3464360000
-215.5710750000 -1743.0324710000 -1110.1931150000
2.9993560000 -1959.3002930000 -1312.1911620000
42.3303380000 -1940.2192380000 -1225.9464110000
36.0525400000 -1961.2144780000 -1304.3255620000
-99.4246370000 -1937.6956790000 -1221.6964110000
-116.5298390000 -1903.2239990000 -1155.0645750000
-76.4545590000 -1910.2185060000 -1151.5417480000
-65.0929950000 -1940.9600830000 -1221.6942140000
48.3682020000 -1907.8155520000 -1153.6855470000
-36.5203170000 -1968.5366210000 -1375.7288820000
-73.9390790000 -1961.7100830000 -1298.2344970000
-53.5361860000 -1959.2458500000 -1289.3507080000
-28.5337090000 -1960.7690430000 -1308.6104740000
-157.3838960000 -1902.5186770000 -1233.0854490000
-132.3503110000 -1923.8630370000 -1225.9377440000
-107.0686420000 -1953.2110600000 -1298.9226070000
-136.9932860000 -1933.9819340000 -1299.7734380000
-192.8975830000 -1937.2001950000 -1323.4915770000
-209.4096220000 -1909.2060550000 -1259.5522460000
-199.5443730000 -1887.7275390000 -1246.1053470000
-183.2806400000 -1914.7370610000 -1298.3543700000
-190.2044830000 -1878.2941890000 -1239.6326900000
-172.7553250000 -1910.8978270000 -1293.0113530000
-159.4177090000 -1935.6558840000 -1347.2296140000
-172.0108490000 -1929.7696530000 -1330.0899660000
-177.9631500000 -1953.3227540000 -1368.3032230000
-164.4931950000 -1916.9410400000 -1297.2802730000
-131.3799590000 -1950.0852050000 -1379.6274410000
-112.7190170000 -1958.4003910000 -1384.2004390000
-152.1838380000 -1924.5495610000 -1299.2608640000
-81.8507690000 -1965.1065670000 -1481.9801030000
-112.6197430000 -1965.2864990000 -1456.6505130000
-160.2727510000 -1966.8989260000 -1415.4464110000
-80.8413160000 -1969.1705320000 -1387.5234380000
-50.6686100000 -1968.8427730000 -1482.1208500000
-47.2787550000 -1960.8756100000 -1549.2895510000
-77.1732940000 -1960.2584230000 -1538.8630370000
-9.2850610000 -1961.8922120000 -1551.7585450000
-48.1463930000 -1954.8498540000 -1600.2000730000
-84.3152470000 -1963.3347170000 -1587.0617680000
-50.8851780000 -1956.1356200000 -1648.6047360000
-52.9243620000 -1965.9804690000 -1749.7978520000
-11.4694520000 -1945.0439450000 -1752.1030270000
-12.0155530000 -1943.0211180000 -1804.7323000000
-50.4144900000 -1974.4871830000 -1798.4478760000
-90.4384540000 -1989.3875730000 -1743.7396240000
-87.7944640000 -2000.2170410000 -1792.8767090000
-89.0881500000 -1971.8666990000 -1639.3083500000
-45.0045470000 -2003.9086910000 -1927.1214600000
-10.4219510000 -1987.1414790000 -1930.7849120000
-9.3762040000 -2020.3481450000 -1964.0471190000
-38.7551800000 -2017.1290280000 -1969.9669190000
-75.4066700000 -2031.0386960000 -1923.8424070000
-68.6315460000 -2038.7076420000 -1968.9002690000
5.1565960000 -1825.4556880000 -1038.9227290000
55.9851300000 -1830.5803220000 -1036.3092040000
52.7514650000 -1871.3660890000 -1093.0695800000
-99.8334960000 -1783.7104490000 -983.0951540000
-93.7721100000 -1833.2933350000 -1031.7104490000
-141.3151700000 -1821.7882080000 -1041.2287600000
3.8586760000 -1776.5146480000 -988.4648440000
57.8242720000 -1781.4027100000 -984.8468630000
-311.7462160000 -1337.0209960000 -1182.1242680000
-501.4633790000 -1804.9604490000 -1218.1527100000
-478.3578490000 -1821.4803470000 -1175.7719730000
-458.0264280000 -1857.0765380000 -1211.8477780000
-488.4599610000 -1839.3388670000 -1256.1175540000
-475.4388430000 -1864.5852050000 -1296.0889890000
-450.6578060000 -1878.1425780000 -1258.6339110000
-460.3457640000 -1884.9842530000 -1328.9067380000
-435.2998960000 -1897.1038820000 -1287.7341310000
-408.1071170000 -1919.1519780000 -1314.6789550000
-442.0350950000 -1903.5495610000 -1361.3909910000
-424.7565920000 -1916.9482420000 -1401.3021240000
-458.8848880000 -1895.0396730000 -1427.2100830000
-387.8335570000 -1933.9859620000 -1366.1169430000
-348.8438420000 -1951.4847410000 -1406.2398680000
-406.5982970000 -1925.8554690000 -1447.5700680000
-452.5638430000 -1897.2926030000 -1472.6621090000
-248.3163600000 -1990.4813230000 -1422.5091550000
-256.7745060000 -1996.8458250000 -1480.6173100000
-303.2511900000 -1980.7358400000 -1481.7664790000
-294.1442570000 -1977.5849610000 -1420.8529050000
-267.3342290000 -1999.1083980000 -1544.1291500000
-313.8340760000 -1978.8146970000 -1546.2001950000
-355.6277160000 -1950.9302980000 -1549.3093260000
-350.4808350000 -1954.5418700000 -1485.7098390000
-397.8300480000 -1927.5935060000 -1504.8907470000
-443.3563840000 -1898.6870120000 -1525.0205080000
-394.2936400000 -1925.6290280000 -1557.4548340000
-434.3229060000 -1899.6672360000 -1575.5009770000
-474.4694820000 -1863.6315920000 -1592.8656010000
-482.9147640000 -1859.7897950000 -1541.6035160000
-530.8517460000 -1772.1020510000 -1561.0303960000
-511.4061580000 -1816.0119630000 -1558.0643310000
-506.9358220000 -1818.0339360000 -1605.5281980000
-527.9963380000 -1766.8980710000 -1608.3419190000
-523.3740840000 -1766.4118650000 -1656.5590820000
-500.3351750000 -1821.4371340000 -1655.4385990000
-538.7418210000 -1714.5126950000 -1599.1580810000
-535.8272090000 -1709.1823730000 -1648.3795170000
-550.2915040000 -1652.8831790000 -1632.2347410000
-463.3034360000 -1868.1036380000 -1643.2907710000
-480.9270940000 -1835.1781010000 -1750.2941890000
-434.7618100000 -1881.6058350000 -1737.5284420000
-410.9295040000 -1896.6892090000 -1778.2327880000
-469.9456790000 -1845.4575200000 -1797.6375730000
-441.8610840000 -1862.1770020000 -1964.0294190000
-388.9977720000 -1910.8004150000 -1956.4114990000
-379.2913210000 -1920.6143800000 -2013.3851320000
-427.7369080000 -1869.9470210000 -2026.2205810000
-468.5001530000 -1803.0971680000 -2029.0524900000
-482.1248470000 -1797.6971440000 -1966.0118410000
-421.1678770000 -1903.1158450000 -1621.8826900000
-394.7446590000 -1910.3306880000 -1727.7668460000
-292.2691040000 -2004.4013670000 -1941.9052730000
-287.9232480000 -2014.6140140000 -1996.0551760000
-331.9534610000 -1966.3085940000 -2003.1219480000
-337.5071110000 -1955.7982180000 -1948.9997560000
-237.2905730000 -2040.1735840000 -1935.5632320000
-176.6543880000 -2055.0744630000 -1929.1168210000
-166.6123810000 -2067.9575200000 -1981.1950680000
-230.5978700000 -2050.9865720000 -1991.7767330000
-218.8365330000 -2003.7139890000 -1546.4350590000
-227.4709930000 -2006.6152340000 -1613.4006350000
-279.0047000000 -1997.8353270000 -1610.8706050000
-170.0282290000 -1995.4291990000 -1555.4114990000
-177.3376310000 -2002.6563720000 -1619.2823490000
-326.2776180000 -1972.5936280000 -1609.8908690000
-366.1498720000 -1940.9420170000 -1606.6278080000
-393.0565800000 -1922.9189450000 -1596.1081540000
-392.8923030000 -1917.3005370000 -1663.8259280000
-395.8381960000 -1865.3022460000 -2168.3737790000
-364.0931400000 -1852.2684330000 -2227.8093260000
-373.2305600000 -1797.0035400000 -2213.2272950000
-415.5549320000 -1798.7393800000 -2157.2238770000
-326.5655820000 -1967.3421630000 -2251.9345700000
-341.5927730000 -1940.4289550000 -2244.6833500000
-354.8522340000 -1941.8868410000 -2217.1369630000
-341.2341920000 -1975.1639400000 -2216.5559080000
-288.7696230000 -1777.5740970000 -2307.3254390000
-282.2246400000 -1828.9699710000 -2324.3505860000
-240.1430660000 -1793.9803470000 -2359.9360350000
-244.5899200000 -1749.5825200000 -2347.6701660000
-177.4943540000 -1946.7792970000 -2242.1948240000
-152.8223270000 -1892.9523930000 -2276.4968260000
-205.0323790000 -1875.7088620000 -2296.8452150000
-232.5520320000 -1919.6442870000 -2272.0678710000
-126.3458560000 -1865.4073490000 -2323.6191410000
-178.2097470000 -1841.8349610000 -2332.0529790000
-289.4348750000 -1991.3531490000 -2242.2873540000
-311.0200500000 -2003.1989750000 -2208.9067380000
-322.2234500000 -2002.1018070000 -2172.3496090000
-348.6273800000 -1974.8311770000 -2179.6965330000
-352.2858580000 -1969.8643800000 -2145.8974610000
-326.2365420000 -1996.7409670000 -2137.0341800000
-295.2256160000 -2021.1673580000 -2131.3620610000
-288.9162900000 -2022.6159670000 -2163.2741700000
-224.2252040000 -1980.4239500000 -2231.0000000000
-262.0047300000 -1959.9418950000 -2260.4606930000
-428.5079040000 -1729.7824710000 -2149.9389650000
-468.1772160000 -1730.6953130000 -2090.3906250000
-381.1417540000 -1730.2711180000 -2200.3500980000
-391.8010250000 -1664.0888670000 -2197.0744630000
-541.5899050000 -1726.6928710000 -1550.5289310000
-240.3254240000 -1956.4587400000 -1286.5712890000
-222.1955870000 -1935.8715820000 -1274.7304690000
-214.0437620000 -1961.7774660000 -1341.1071780000
-240.7281950000 -1974.8621830000 -1345.5833740000
-208.9261780000 -1975.0344240000 -1380.1879880000
-243.2411350000 -1984.0271000000 -1381.8031010000
-232.1792760000 -1904.6209720000 -1208.7648930000
-244.7324370000 -1931.0515140000 -1222.3946530000
-251.7353670000 -1903.3917240000 -1160.0605470000
-242.6259460000 -1871.7838130000 -1144.3106690000
-262.0670780000 -1865.9831540000 -1044.2648930000
-256.4737550000 -1830.0186770000 -1029.4442140000
-251.2675930000 -1848.1291500000 -1085.9796140000
-257.5630800000 -1881.4301760000 -1100.9072270000
-248.6716160000 -1809.1696780000 -1071.0616460000
-282.3196720000 -1739.0922850000 -976.5535890000
-300.2145690000 -1725.3332520000 -920.6583860000
-261.5442200000 -1791.3675540000 -961.0630490000
-275.4776610000 -1755.5581050000 -939.0702510000
-258.2920530000 -1805.4158940000 -915.9539790000
-273.2566830000 -1773.1611330000 -897.3065190000
-300.7355350000 -1745.7783200000 -878.9954830000
-245.8363800000 -1826.5212400000 -840.3416750000
-272.6009520000 -1787.1060790000 -859.2454830000
-253.8538970000 -1817.6112060000 -876.9650270000
-269.7979430000 -1796.5627440000 -823.7261960000
-291.8354490000 -1765.3170170000 -803.7703860000
-298.1959530000 -1759.2957760000 -839.0809940000
-312.7045290000 -1738.0455320000 -786.2626340000
-318.2868650000 -1731.0065920000 -820.2995000000
-335.1355290000 -1717.5030520000 -773.5220340000
-338.0245060000 -1707.6359860000 -806.1615600000
-344.3825380000 -1693.0098880000 -845.6383670000
-327.2705990000 -1719.1566160000 -861.6697390000
-375.5627750000 -1652.5378420000 -878.0774540000
-406.9307860000 -1646.1116940000 -873.2991940000
-347.8240660000 -1669.3376460000 -888.7387700000
-368.3087160000 -1676.8782960000 -835.3430180000
-398.7804870000 -1675.8950200000 -833.5051880000
-450.2925720000 -1748.3470460000 -781.1646730000
-450.3868710000 -1738.9646000000 -816.6614380000
-426.6820680000 -1706.9626460000 -801.3374020000
-423.3989870000 -1717.5914310000 -767.8402100000
-452.6011660000 -1719.9217530000 -856.9848630000
-430.6912540000 -1688.5355220000 -839.5390010000
-393.9801940000 -1692.7163090000 -795.6599120000
-391.0010380000 -1702.7943120000 -763.0016480000
-362.5304570000 -1692.1237790000 -796.7387080000
-359.7541500000 -1702.4698490000 -764.5596310000
-441.0942080000 -1655.7429200000 -878.9204710000
-454.0591740000 -1617.6226810000 -919.0584110000
-465.5461430000 -1686.7573240000 -898.7211300000
-324.3484500000 -1695.8717040000 -904.2772830000
-311.2062990000 -1743.4488530000 -758.3835450000
-334.0384830000 -1723.8317870000 -746.7023320000
-287.2080690000 -1769.9461670000 -774.0234380000
-283.9752810000 -1774.0618900000 -746.8116460000
-308.9531860000 -1747.3320310000 -732.8790890000
-331.5793460000 -1727.2801510000 -721.9898680000
-240.8848110000 -1835.5959470000 -806.4238280000
-264.3236690000 -1803.5476070000 -791.5507810000
-233.8714290000 -1839.9019780000 -775.3381960000
-256.3432310000 -1806.0709230000 -762.0372920000
-304.8920900000 -1749.5267330000 -706.7648930000
-329.1465450000 -1729.6765140000 -696.5651250000
-277.9842530000 -1774.9111330000 -719.0142820000
-273.6161800000 -1776.4172360000 -690.8151860000
-301.8349300000 -1752.0021970000 -679.9244380000
-327.2360230000 -1731.5189210000 -670.4464720000
-233.3426210000 -1837.9515380000 -744.5394290000
-251.5500640000 -1805.0384520000 -732.5484010000
-238.0509800000 -1831.7282710000 -712.8994750000
-250.0163730000 -1802.9085690000 -703.0828860000
-244.9086910000 -1848.0871580000 -889.1933590000
-234.4865420000 -1858.0736080000 -851.6766970000
-253.5047150000 -1837.8651120000 -930.4147340000
-261.9010620000 -1865.5329590000 -942.3707280000
-251.3107760000 -1876.5406490000 -899.4122310000
-243.5704500000 -1887.7747800000 -859.7385250000
-287.5069580000 -1914.1544190000 -964.2033690000
-282.7434080000 -1925.5490720000 -917.5574340000
-271.4534000000 -1898.5798340000 -906.9461060000
-279.0737920000 -1888.1457520000 -953.0836790000
-276.4230040000 -1941.0701900000 -877.2467040000
-264.4585880000 -1911.7034910000 -866.9734500000
-270.9468080000 -1957.6306150000 -842.3106080000
-264.0000610000 -1922.8543700000 -831.8217770000
-269.1035460000 -1969.1651610000 -807.6685180000
-264.3488460000 -1929.0792240000 -800.5691530000
-239.9733730000 -1901.8253170000 -793.3656620000
-243.1674960000 -1896.1759030000 -824.2755740000
-310.5227660000 -1970.4398190000 -887.5816040000
-312.2539060000 -1990.4295650000 -852.0032960000
-293.3233950000 -1981.9689940000 -849.2194820000
-293.3450010000 -1964.1826170000 -885.3884890000
-314.3114320000 -2005.0555420000 -815.2476810000
-294.6817930000 -1996.5230710000 -813.2587280000
-282.0255740000 -1956.4132080000 -737.6902470000
-264.5432130000 -1920.2656250000 -736.7931520000
-264.4455260000 -1927.8521730000 -770.3278200000
-273.2644960000 -1969.4270020000 -772.3348390000
-238.8638460000 -1893.6276860000 -728.5175170000
-235.8855130000 -1901.9212650000 -762.3621830000
-316.5590520000 -1996.1008300000 -735.6554570000
-301.5424500000 -1990.7010500000 -735.4116820000
-297.1362610000 -2002.0015870000 -774.8210450000
-314.9265440000 -2009.0223390000 -775.8914790000
-229.6895600000 -1867.8135990000 -816.9838260000
-224.8985140000 -1873.0841060000 -785.3322140000
-312.5930790000 -1941.6115720000 -976.8770750000
